1.056719230769e+002 4.045346153846e+001 3.653621301775e+003
1.055488461538e+002 4.044576923077e+001 2.983538461539e+003
1.056111538462e+002 4.041423076923e+001 3.033378698225e+003
1.056888461538e+002 4.039423076923e+001 3.328094674556e+003
1.057165384615e+002 4.047423076923e+001 3.295390532544e+003
1.056096153846e+002 4.047807692308e+001 3.624396449704e+003
1.056680769231e+002 4.040038461538e+001 3.231284023669e+003
1.057073076923e+002 4.038346153846e+001 3.031112426035e+003
1.057050000000e+002 4.031038461538e+001 3.693153846154e+003
1.056634615385e+002 4.035576923077e+001 2.878656804734e+003
1.056734615385e+002 4.026807692308e+001 3.850804733728e+003
1.057211538462e+002 4.027115384615e+001 3.151940828402e+003
1.057073076923e+002 4.030038461538e+001 3.490491124260e+003
1.056357692308e+002 4.030115384615e+001 2.943846153846e+003
1.055988461538e+002 4.027346153846e+001 3.548822485207e+003
1.056096153846e+002 4.034192307692e+001 2.563343195266e+003
1.055150000000e+002 4.036115384615e+001 2.543461538462e+003
1.055903846154e+002 4.036115384615e+001 2.508532544379e+003
1.055311538462e+002 4.034653846154e+001 2.466940828402e+003
1.055411538462e+002 4.032500000000e+001 2.803230769231e+003
1.055803846154e+002 4.031884615385e+001 2.654615384615e+003
1.055673076923e+002 4.027423076923e+001 3.022828402367e+003
1.055380769231e+002 4.030038461538e+001 2.787396449704e+003
1.055142307692e+002 4.026730769231e+001 2.989899408284e+003
1.055119230769e+002 4.040730769231e+001 2.684177514793e+003
1.055496153846e+002 4.041961538462e+001 2.899988165681e+003
1.055103846154e+002 4.046038461538e+001 2.702994082840e+003
1.055250000000e+002 4.048961538462e+001 2.739000000000e+003
1.057303846154e+002 4.041346153846e+001 3.692171597633e+003
1.057319230769e+002 4.047807692308e+001 3.048000000000e+003
1.057350000000e+002 4.032576923077e+001 3.413692307692e+003
1.057334615385e+002 4.026961538462e+001 3.328994082840e+003
1.056303846154e+002 4.038038461538e+001 2.788177514793e+003
1.055588461538e+002 4.038038461538e+001 2.434668639053e+003
1.055842307692e+002 4.045192307692e+001 3.434609467456e+003
1.056557692308e+002 4.048423076923e+001 3.609029585799e+003
1.057034615385e+002 4.043423076923e+001 3.754473372781e+003
1.056350000000e+002 4.043807692308e+001 3.107000000000e+003
1.056696153846e+002 4.032038461538e+001 3.265384615385e+003
1.057096153846e+002 4.035269230769e+001 3.598147928994e+003
1.055611538462e+002 4.048346153846e+001 3.404982248521e+003
1.055173076923e+002 4.031115384615e+001 2.788177514793e+003
